-0.01982169784605503 -0.07103367149829865 0.007835108786821365
-0.019746406003832817 -0.07131404429674149 0.006032287608832121
-0.01974644511938095 -0.07130790501832962 0.005216912366449833
-0.019747085869312286 -0.071231909096241 0.004405091516673565
-0.01974831335246563 -0.0710865780711174 0.003602772019803524
-0.019750114530324936 -0.07087298482656479 0.0028158603236079216
-0.01975245773792267 -0.07059288024902344 0.0020503797568380833
-0.019963983446359634 -0.07024869322776794 0.0013099652715027332
-0.019914880394935608 -0.06937754899263382 -6.170012056827545e-05
-0.01977192424237728 -0.0682794526219368 -0.0012703780084848404
-0.019748259335756302 -0.0710935890674591 0.007727924268692732
-0.019742213189601898 -0.07091177999973297 0.007956527173519135
-0.01972489058971405 -0.07080362737178802 0.008014652878046036
-0.0018021352589130402 -0.07055705040693283 0.00804046168923378
-0.010745445266366005 -0.07056067138910294 0.008046358823776245
-0.019798962399363518 -0.07052887231111526 0.008038103580474854
-0.01963334158062935 -0.07036975026130676 0.007975760847330093
-0.0018042568117380142 -0.07030338793992996 0.008015792816877365
-0.019642114639282227 -0.06665493547916412 0.004866800270974636
-0.019973834976553917 -0.06684426963329315 0.004837491549551487
0.016305387020111084 -0.07075994461774826 0.007793798577040434
0.015943551436066628 -0.07000609487295151 0.007929719984531403
-0.019555211067199707 -0.0703045129776001 0.007929716259241104
0.007119033019989729 -0.07030778378248215 0.008037861436605453
0.016380205750465393 -0.07049249112606049 0.008018381893634796
0.007167985197156668 -0.07064935564994812 0.007980775088071823
0.016145052388310432 -0.07063988596200943 0.007935721427202225
0.0161492507904768 -0.07070114463567734 0.007877182215452194
0.016085347160696983 -0.07010385394096375 0.00799737498164177
0.016150275245308876 -0.07081511616706848 0.007649547886103392
0.01585557498037815 -0.03576279804110527 -0.01502091996371746
0.006878979038447142 -0.03571370616555214 -0.01480851136147976
0.01613856665790081 -0.03561777621507645 -0.014717333018779755
0.006821792107075453 -0.03582315519452095 -0.014333924278616905
0.015950383618474007 -0.035673558712005615 -0.014436455443501472
0.01585610769689083 -0.03582512214779854 -0.015073982998728752
0.015824047848582268 -0.03562101349234581 -0.014616889879107475
0.016000205650925636 -0.0357145220041275 -0.014966703951358795
0.01565682329237461 -0.03590065985918045 -0.01421937346458435
0.006733532529324293 -0.045205168426036835 -0.016109734773635864
-0.014749707654118538 -0.044772133231163025 -0.016354704275727272
-0.01526571623980999 -0.04539010673761368 -0.016109736636281013
-0.015834521502256393 -0.04245947673916817 -0.01684349775314331
-0.014747673645615578 -0.04243451729416847 -0.016846248880028725
-0.002021055668592453 -0.04451574385166168 -0.01639813557267189
0.015907762572169304 -0.041968416422605515 -0.016858022660017014
-0.0020412057638168335 -0.042119335383176804 -0.016858024522662163
-0.00202765129506588 -0.04373132809996605 -0.016619708389043808
-0.014080476015806198 -0.043975941836833954 -0.016593335196375847
-0.0020343847572803497 -0.042930617928504944 -0.016773438081145287
-0.014162113890051842 -0.04311208426952362 -0.016768336296081543
-0.016394568607211113 -0.0431569442152977 -0.01676163449883461
0.015927905216813087 -0.04436482861638069 -0.01639813371002674
0.01613868586719036 -0.04512590542435646 -0.016109781339764595
0.016124216839671135 -0.042773060500621796 -0.016774043440818787
0.015940511599183083 -0.045862700790166855 -0.01575733721256256
0.01594640500843525 -0.046564944088459015 -0.015343006700277328
0.01586785726249218 -0.03722215071320534 -0.015911996364593506
0.016070978716015816 -0.037964846938848495 -0.016236916184425354
0.01588062383234501 -0.03874203935265541 -0.016498783603310585
0.015900908038020134 -0.04115323722362518 -0.016872603446245193
0.015887288376688957 -0.03953428566455841 -0.01669222302734852
0.015894072130322456 -0.040340032428503036 -0.01681714877486229
0.015861833468079567 -0.036505576223134995 -0.015523083508014679
-0.0018093958497047424 -0.06968986988067627 0.0006048218347132206
0.006944743450731039 -0.07002335786819458 0.001311462838202715
-0.0018059927970170975 -0.0700969323515892 0.0013114609755575657
0.016126422211527824 -0.06797763705253601 -0.0012703724205493927
-0.015054525807499886 -0.07020832598209381 0.0013114609755575657
-0.0018225517123937607 -0.0681285485625267 -0.001270374283194542
-0.001813344657421112 -0.06922373920679092 -6.419047713279724e-05
-0.0018177200108766556 -0.068702332675457 -0.0006906408816576004
0.01613953523337841 -0.06953893601894379 0.0006048236973583698
0.01650059223175049 -0.06995031237602234 0.001326108817011118
0.016364648938179016 -0.06907285004854202 -6.150081753730774e-05
0.016131246462464333 -0.06855141371488571 -0.0006906390190124512
0.016264956444501877 -0.0673554390668869 -0.0017985329031944275
0.016145871952176094 -0.07029107213020325 0.002050385344773531
0.016151240095496178 -0.07093008607625961 0.004405095241963863
0.016451861709356308 -0.07100380957126617 0.0052172718569636345
0.01615193299949169 -0.0710122212767601 0.006032291334122419
0.01615140028297901 -0.07094862312078476 0.006845272611826658
0.01611560769379139 -0.06669238209724426 -0.0022716415114700794
0.016148211434483528 -0.0705711841583252 0.00281586404889822
0.016150018200278282 -0.07078477740287781 0.0036027776077389717
-0.02011004276573658 -0.06374407559633255 -0.00011310167610645294
-0.02028072625398636 -0.04344312846660614 -0.012147229164838791
-0.02023129165172577 -0.04932336509227753 -0.010415267199277878
-0.020138517022132874 -0.060357142239809036 -0.003641194198280573
-0.02017829939723015 -0.055624522268772125 -0.007166247349232435
0.015848329290747643 -0.04011814668774605 -0.012186214327812195
0.016414232552051544 -0.06652647256851196 -0.002020047977566719
0.016178475692868233 -0.0384858138859272 -0.01598385162651539
0.016115212813019753 -0.03980106860399246 -0.016681980341672897
0.016437817364931107 -0.07048202306032181 0.0078077311627566814
0.01632455736398697 -0.0664755254983902 0.004752124659717083
0.01640484854578972 -0.06541120260953903 0.002483243588358164
0.0159128587692976 -0.06635601073503494 0.0048668039962649345
0.016146445646882057 -0.04024872928857803 -0.012379875406622887
0.016204072162508965 -0.04153032600879669 -0.012429006397724152
0.015692824497818947 -0.04018329456448555 -0.012130538001656532
0.016370590776205063 -0.061337169259786606 -0.0023344666697084904
0.01624131016433239 -0.045960135757923126 -0.011478865519165993
0.016279470175504684 -0.05049920454621315 -0.009799813851714134
0.01633865013718605 -0.057536639273166656 -0.005719597917050123
-0.019600775092840195 -0.06488528102636337 0.002160190138965845
-0.01959306374192238 -0.06580115109682083 0.00349303986877203
-0.01999729685485363 -0.0642305240035057 0.000969188753515482
-0.01960897631943226 -0.06390880793333054 0.0008709863759577274
-0.019617687910795212 -0.06287409365177155 -0.00037151388823986053
-0.019954083487391472 -0.06191849336028099 -0.001590890809893608
-0.019626855850219727 -0.0617825947701931 -0.001565219834446907
-0.019636480137705803 -0.060637522488832474 -0.0027069770731031895
-0.0196465365588665 -0.05944061279296875 -0.0037948195822536945
-0.020063260570168495 -0.05848298966884613 -0.004866554401814938
-0.019657010212540627 -0.058195099234580994 -0.004825974814593792
-0.019946301355957985 -0.05631520599126816 -0.006299836095422506
-0.01966787315905094 -0.056902848184108734 -0.00579875847324729
-0.01967911794781685 -0.05556725710630417 -0.0067106871865689754
-0.01969066634774208 -0.0541912280023098 -0.007559777703136206
-0.02007436193525791 -0.05357522889971733 -0.008129479363560677
-0.019702564924955368 -0.05277696251869202 -0.008344676345586777
-0.01971474476158619 -0.05132833123207092 -0.009063176810741425
-0.020128469914197922 -0.04914584755897522 -0.010233916342258453
-0.019727200269699097 -0.04984772950410843 -0.009714184328913689
-0.01973988302052021 -0.04833880439400673 -0.010296020656824112
-0.019752787426114082 -0.046804629266262054 -0.010807501152157784
-0.019765857607126236 -0.04524870961904526 -0.01124742440879345
-0.020013701170682907 -0.04447609558701515 -0.01149757206439972
-0.01977909542620182 -0.04367385804653168 -0.01161513477563858
-0.01979246363043785 -0.042083777487277985 -0.011909719556570053
0.016183706000447273 -0.05527881532907486 -0.00686641363427043
0.01630416139960289 -0.06522004306316376 0.002696842420846224
0.015905683860182762 -0.06550268828868866 0.0034930435940623283
0.015706302598118782 -0.041785333305597305 -0.011909715831279755
0.016118096187710762 -0.043512631207704544 -0.011791938915848732
0.015889788046479225 -0.06361038237810135 0.0008709919638931751
0.015898002311587334 -0.0645868331193924 0.0021601938642561436
0.016220970079302788 -0.06315897405147552 0.00015839003026485443
0.015881085768342018 -0.06257565319538116 -0.00037151016294956207
0.015871914103627205 -0.06148414686322212 -0.0015652161091566086
0.01620257832109928 -0.06096891686320305 -0.0022334237582981586
0.015862280502915382 -0.06033908948302269 -0.002706973347812891
0.01585220731794834 -0.05914214998483658 -0.003794815856963396
0.016168026253581047 -0.0584421306848526 -0.004509952384978533
0.015841742977499962 -0.05789665877819061 -0.0048259710893034935
0.015830887481570244 -0.05660441145300865 -0.005798752885311842
0.015819652006030083 -0.055268798023462296 -0.006710683461278677
0.015808092430233955 -0.05389276519417763 -0.007559772115200758
0.0161804910749197 -0.05113255977630615 -0.00923471711575985
0.015784023329615593 -0.051029883325099945 -0.009063173085451126
0.015796201303601265 -0.05247850343585014 -0.008344672620296478
0.015758877620100975 -0.04804034158587456 -0.010296016931533813
0.015771573409438133 -0.04954930394887924 -0.00971418060362339
0.015993965789675713 -0.04729505628347397 -0.010614726692438126
0.0157459806650877 -0.046506185084581375 -0.010807497426867485
0.0157329048961401 -0.044950295239686966 -0.011247420683503151
0.015719672664999962 -0.043375413864851 -0.011615131050348282
-0.014582186937332153 -0.03871523216366768 -0.012970713898539543
-0.014240406453609467 -0.038849037140607834 -0.012904062867164612
-0.013858292251825333 -0.039080049842596054 -0.012789765372872353
-0.0020562205463647842 -0.040332499891519547 -0.012130539864301682
-0.013294622302055359 -0.039701491594314575 -0.012484349310398102
-0.013010162860155106 -0.040426384657621384 -0.012133372947573662
-0.017548058182001114 -0.04045068100094795 -0.012136252596974373
-0.017307855188846588 -0.039662230759859085 -0.012520022690296173
-0.016156911849975586 -0.03872601315379143 -0.01297195628285408
-0.01508130319416523 -0.03861173614859581 -0.01302322931587696
-0.0018510706722736359 -0.06473603844642639 0.002160190138965845
-0.002042759209871292 -0.0419345460832119 -0.011909717693924904
-0.00202939473092556 -0.04352463781833649 -0.011615132912993431
-0.015616677701473236 -0.0431017130613327 -0.01172330416738987
-0.016725804656744003 -0.042615778744220734 -0.011816073209047318
-0.017454221844673157 -0.04150771349668503 -0.011990014463663101
-0.0018433686345815659 -0.06565190106630325 0.003493041731417179
-0.013319320976734161 -0.04185435548424721 -0.011937636882066727
-0.01424688845872879 -0.04285746440291405 -0.011767981573939323
-0.01483713649213314 -0.04307366535067558 -0.011727523058652878
-0.013591721653938293 -0.04084001109004021 -0.015048718079924583
-0.013143511489033699 -0.04149555787444115 -0.014620445668697357
-0.014962386339902878 -0.04020027816295624 -0.01547159068286419
-0.01591993123292923 -0.040255047380924225 -0.015412738546729088
-0.01679856888949871 -0.04066147655248642 -0.015182117000222206
-0.01302780769765377 -0.042302459478378296 -0.014095993712544441
-0.013681385666131973 -0.04344156011939049 -0.01335977390408516
-0.01421336829662323 -0.04042021557688713 -0.015327146276831627
-0.017372896894812584 -0.0413471981883049 -0.014740001410245895
-0.017555756494402885 -0.04222874343395233 -0.014168577268719673
-0.01733618602156639 -0.04287940263748169 -0.013744818046689034
-0.016563357785344124 -0.04372497275471687 -0.013191666454076767
-0.014978047460317612 -0.043973833322525024 -0.013021295890212059
-0.014219298958778381 -0.04160643368959427 -0.01455446146428585
-0.014087608084082603 -0.04229073226451874 -0.014109401032328606
-0.014926193282008171 -0.041086360812187195 -0.014896022155880928
-0.016119450330734253 -0.04130129516124725 -0.014763019979000092
-0.016500061377882957 -0.04208757355809212 -0.014254460111260414
-0.014630543068051338 -0.04295285418629646 -0.01368236355483532
-0.015542905777692795 -0.043093491345644 -0.013595998287200928
-0.016300305724143982 -0.04267654940485954 -0.01387091912329197
-0.02341950125992298 -0.08638723939657211 0.01587059535086155
-0.02340446040034294 -0.08823948353528976 0.013018298894166946
-0.020420892164111137 -0.08632660657167435 0.01592480204999447
-0.020405368879437447 -0.08821705728769302 0.013013731688261032
-0.020404385402798653 -0.08822102099657059 0.014822619035840034
-0.01601771079003811 -0.08798322826623917 0.015144238248467445
-0.020033124834299088 -0.08776316791772842 0.015415078029036522
-0.020412860438227654 -0.08722593635320663 0.015772270038723946
-0.020403185859322548 -0.0883842334151268 0.013460144400596619
-0.020401321351528168 -0.08841292560100555 0.01425824873149395
-0.020433828234672546 -0.08456375449895859 0.013189736753702164
-0.01602647826075554 -0.08479322493076324 0.01272895559668541
-0.020432395860552788 -0.08485788106918335 0.012692973017692566
-0.01613115333020687 -0.08504566550254822 0.01245070993900299
-0.02042926661670208 -0.08527970314025879 0.012282691895961761
-0.016011357307434082 -0.08678648620843887 0.011963460594415665
-0.017887482419610023 -0.08724143356084824 0.012107305228710175
-0.023211155086755753 -0.0873897597193718 0.01214703917503357
-0.0161106139421463 -0.08748606592416763 0.012247864156961441
-0.02340587228536606 -0.0879586860537529 0.012591533362865448
-0.01610727235674858 -0.08788497745990753 0.012601081281900406
-0.020435817539691925 -0.08443912863731384 0.013775462284684181
-0.01602395996451378 -0.08446552604436874 0.013402394950389862
-0.016013989225029945 -0.08583535254001617 0.011996302753686905
-0.020423250272870064 -0.0859968364238739 0.011963311582803726
-0.02041880413889885 -0.08653918653726578 0.011925466358661652
-0.016024824231863022 -0.08838564902544022 0.013720717281103134
-0.023414164781570435 -0.08657591789960861 0.011908672749996185
-0.015986451879143715 -0.08730379492044449 0.015722988173365593
-0.016956578940153122 -0.08650550246238708 0.015915336087346077
-0.02342839725315571 -0.08522334694862366 0.01550285704433918
-0.016131317242980003 -0.08502722531557083 0.015382437035441399
-0.023232661187648773 -0.08485938608646393 0.015128767117857933
-0.016020068898797035 -0.08467288315296173 0.014956614002585411
-0.020437635481357574 -0.08464838564395905 0.014837512746453285
-0.02043587528169155 -0.0844816341996193 0.014389311894774437
-0.01967417262494564 -0.0858888328075409 0.015851469710469246
-0.01790144480764866 -0.08558212965726852 0.015743060037493706
-0.023224417120218277 -0.08584093302488327 0.015820017084479332
-0.016128942370414734 -0.08530764281749725 0.01560250110924244
-0.023434342816472054 -0.08467701822519302 0.014832062646746635
-0.015991510823369026 -0.0883263647556305 0.014447970315814018
-0.016058268025517464 -0.0844067856669426 0.014129647985100746
-0.015899788588285446 -0.08874230831861496 0.013064764440059662
-0.010021418333053589 -0.08617693185806274 0.01143096387386322
-0.00989406369626522 -0.08860527724027634 0.012857198715209961
-0.009914109483361244 -0.08659574389457703 0.011434357613325119
-0.015920234844088554 -0.08622656017541885 0.01143096387386322
-0.009902484714984894 -0.08842649310827255 0.012540500611066818
-0.009909138083457947 -0.08772219717502594 0.011822745203971863
-0.009904606267809868 -0.08817553520202637 0.012222856283187866
-0.009913178160786629 -0.08715519309043884 0.011560235172510147
-0.003922285977751017 -0.08604831248521805 0.011437371373176575
-0.003915001172572374 -0.08691398054361343 0.01150321215391159
0.002095066476613283 -0.08829346299171448 0.012491889297962189
0.002094751689583063 -0.08852691948413849 0.012906808406114578
-0.003935249987989664 -0.08450674265623093 0.012177534401416779
-0.0039375764317810535 -0.08423042297363281 0.012514505535364151
0.008061960339546204 -0.08412020653486252 0.012521851807832718
0.00806458294391632 -0.08443323522806168 0.01215004175901413
-0.003932467196136713 -0.0848373994231224 0.011893685907125473
0.008067473769187927 -0.08477615565061569 0.011865794658660889
-0.003929315600544214 -0.08521218597888947 0.011671673506498337
0.00807073526084423 -0.08516410738229752 0.011646967381238937
-0.0039258734323084354 -0.08562002331018448 0.011517852544784546
0.00807558186352253 -0.08562156558036804 0.01148940622806549
0.00207756320014596 -0.08653178811073303 0.011433850973844528
0.0020864312537014484 -0.08705434203147888 0.011560238897800446
-0.003911549691110849 -0.08732518553733826 0.011647623032331467
0.00209241034463048 -0.08762122690677643 0.011822748929262161
-0.0039083571173250675 -0.08770492672920227 0.01186123862862587
-0.0039055240340530872 -0.08804189413785934 0.01213756576180458
0.0020950050093233585 -0.08807463943958282 0.012222856283187866
-0.015936965122818947 -0.08432213962078094 0.01252160593867302
-0.015934331342577934 -0.08463500440120697 0.012150038033723831
-0.015931449830532074 -0.08497792482376099 0.011865794658660889
-0.01592818833887577 -0.08536586165428162 0.011646963655948639
-0.015925541520118713 -0.08582331240177155 0.011489402502775192
-0.003899997565895319 -0.08870158344507217 0.01325087621808052
0.008077980950474739 -0.08602478355169296 0.011430967599153519
0.0021781683899462223 -0.08607440441846848 0.011430967599153519
0.002199311275035143 -0.088590107858181 0.013064764440059662
0.008099129423499107 -0.08854053169488907 0.013064764440059662
0.008099941536784172 -0.08863896131515503 0.013406779617071152
-0.003899295348674059 -0.08878202736377716 0.013679172843694687
-0.01589898020029068 -0.08884070813655853 0.013406775891780853
-0.015940183773636818 -0.08390387892723083 0.013728581368923187
0.008058326318860054 -0.08370079845190048 0.013735491782426834
0.008059043437242508 -0.08377400785684586 0.013296123594045639
0.008060308173298836 -0.08392408490180969 0.012876752763986588
-0.015938611701130867 -0.0841258242726326 0.012876749038696289
0.008100353181362152 -0.0886860191822052 0.014114877209067345
-0.015898576006293297 -0.08888781815767288 0.014114877209067345
0.008100369945168495 -0.08868779242038727 0.013759160414338112
-0.015939872711896896 -0.08397574722766876 0.01329611986875534
-0.01589854806661606 -0.08888952434062958 0.013759156689047813
-0.00993536040186882 -0.08408408612012863 0.014993136748671532
-0.015939267352223396 -0.0840480774641037 0.014785600826144218
-0.010018574073910713 -0.08651424199342728 0.01641939952969551
-0.00991392694413662 -0.08609520643949509 0.016416069120168686
-0.01591811701655388 -0.0865638330578804 0.01641939952969551
-0.009937476366758347 -0.08426297456026077 0.015309864655137062
-0.009932287037372589 -0.08496733009815216 0.016027620062232018
-0.009935401380062103 -0.08451399207115173 0.015627512708306313
-0.009926801547408104 -0.08553431183099747 0.016290128231048584
-0.003918141592293978 -0.08654031157493591 0.016412995755672455
0.002060661558061838 -0.08419430255889893 0.01535847969353199
-0.003925424534827471 -0.08567463606595993 0.01634715124964714
0.0020567853935062885 -0.08396086096763611 0.0149435605853796
-0.0039051943458616734 -0.08808185160160065 0.015672830864787102
-0.003902860451489687 -0.08835818618535995 0.015335863456130028
0.008096717298030853 -0.08826663345098495 0.015328513458371162
0.008094191551208496 -0.0879536047577858 0.01570032723248005
-0.003907967824488878 -0.08775119483470917 0.015956683084368706
0.008091302588582039 -0.08761068433523178 0.01598457433283329
-0.003911110106855631 -0.0873764306306839 0.016178695484995842
0.008088026195764542 -0.08722276240587234 0.01620340533554554
-0.003914548549801111 -0.08696861565113068 0.016332514584064484
0.00808490626513958 -0.08676528930664062 0.01636096090078354
0.0020722453482449055 -0.08595621585845947 0.01641656458377838
0.0020728115923702717 -0.08543338626623154 0.016290128231048584
-0.00392888905480504 -0.08526350557804108 0.016202745959162712
0.0020692353136837482 -0.08486645668745041 0.016027620062232018
-0.003932072315365076 -0.0848836749792099 0.01598912663757801
-0.003934909123927355 -0.08454670011997223 0.015712803229689598
0.002064232248812914 -0.084413081407547 0.015627512708306313
-0.015902118757367134 -0.08846721053123474 0.015323160216212273
-0.015904748812317848 -0.08815537393093109 0.01570032350718975
-0.015907609835267067 -0.08781245350837708 0.01598457060754299
-0.01591086946427822 -0.08742449432611465 0.01620340161025524
-0.01591567136347294 -0.08696707338094711 0.01636096090078354
-0.0039404635317623615 -0.08388707041740417 0.014599492773413658
0.00808081403374672 -0.0863620713353157 0.01641939952969551
0.0021809772588312626 -0.08641166239976883 0.01641939952969551
0.0021598380990326405 -0.08389592915773392 0.014785604551434517
0.008059654384851456 -0.08384633809328079 0.014785604551434517
0.008058831095695496 -0.08374787867069244 0.014443589374423027
-0.00394112104550004 -0.08380655944347382 0.014171196147799492
-0.01594010554254055 -0.08394968509674072 0.014443589374423027
0.008099744096398354 -0.08861284703016281 0.014554249122738838
0.008098483085632324 -0.08846276998519897 0.01497361995279789
-0.015900127589702606 -0.0886688157916069 0.014965808019042015
0.008058426901698112 -0.08369907736778259 0.014091210439801216
-0.015899205580353737 -0.0888146162033081 0.01455424539744854
-0.015940530225634575 -0.08390086889266968 0.014091206714510918
0.008143819868564606 -0.08745801448822021 0.012349128723144531
0.008104793727397919 -0.08527398109436035 0.015712590888142586
0.008100718259811401 -0.08694580942392349 0.015780562534928322
0.008086008951067924 -0.0841863751411438 0.014125725254416466
0.00808807834982872 -0.08544079214334488 0.012069810181856155
0.011862736195325851 -0.08418431133031845 0.01356927677989006
0.012064758688211441 -0.08447076380252838 0.012839633971452713
0.008147591724991798 -0.08429986983537674 0.01325422152876854
0.008156843483448029 -0.08474389463663101 0.01252191886305809
0.011869095265865326 -0.08517517894506454 0.012157484889030457
0.012078631669282913 -0.08608228713274002 0.011916209012269974
0.011888906359672546 -0.08769543468952179 0.012605533003807068
0.008174899965524673 -0.08807454258203506 0.013224389404058456
0.012088563293218613 -0.08812268823385239 0.013499554246664047
0.01188245415687561 -0.0868907943367958 0.012054193764925003
0.008192846551537514 -0.08640187978744507 0.011924192309379578
0.011896088719367981 -0.088138647377491 0.014281092211604118
0.008190818130970001 -0.08820131421089172 0.014096824452280998
0.011893752962350845 -0.08785181492567062 0.015010440722107887
0.008178172633051872 -0.08778158575296402 0.015199044719338417
0.011889457702636719 -0.08731228858232498 0.015570452436804771
0.011869467794895172 -0.08624063432216644 0.015934789553284645
0.012084189802408218 -0.08678248524665833 0.015823541209101677
0.00818590633571148 -0.08455689996480942 0.015114689245820045
0.011863160878419876 -0.08477427065372467 0.015376752242445946
0.012052811682224274 -0.08423308283090591 0.014546757563948631
0.01207265630364418 -0.08543083816766739 0.015795471146702766
0.008189629763364792 -0.08598306030035019 0.0159261766821146
0.002568183932453394 -0.025669656693935394 -0.02655755542218685
0.0026043099351227283 -0.0298959668725729 -0.02604915387928486
0.0023677428252995014 -0.02793983742594719 -0.027173111215233803
0.002105823252350092 -0.029854046180844307 -0.02231139875948429
0.002600839827209711 -0.02939741127192974 -0.02148684300482273
0.0022348263300955296 -0.029153479263186455 -0.021663660183548927
0.002115922514349222 -0.02653878927230835 -0.027029475197196007
0.0022531175054609776 -0.027322813868522644 -0.02719803713262081
-0.0024016392417252064 -0.02844298630952835 -0.027069488540291786
0.0022724498994648457 -0.028828999027609825 -0.026905449107289314
0.0022238478995859623 -0.02946430630981922 -0.026506660506129265
0.002609018702059984 -0.03053256683051586 -0.02443399839103222
0.002322365064173937 -0.0303207915276289 -0.02532324008643627
0.002342753577977419 -0.030236395075917244 -0.022899070754647255
0.0022524078376591206 -0.030449481680989265 -0.023470578715205193
0.002380546648055315 -0.027604911476373672 -0.02119995467364788
0.002565483096987009 -0.025164378806948662 -0.022350749000906944
0.0023371190764009953 -0.024517949670553207 -0.024187082424759865
-0.0020809434354305267 -0.025990677997469902 -0.02676008827984333
0.00220767455175519 -0.028291605412960052 -0.021287428215146065
0.0023334999568760395 -0.026802830398082733 -0.021283695474267006
0.002250662539154291 -0.026237521320581436 -0.021493619307875633
0.0021913875825703144 -0.025603124871850014 -0.021892404183745384
0.00227549159899354 -0.024745099246501923 -0.023075835779309273
0.0022997413761913776 -0.02476568892598152 -0.0253737885504961
0.0021782671101391315 -0.025226229801774025 -0.026129739359021187
0.002565110567957163 -0.025041233748197556 -0.02860531397163868
0.0025724475271999836 -0.025921395048499107 -0.019455663859844208
0.002555037382990122 -0.023744575679302216 -0.02082286961376667
0.002543747890740633 -0.022500665858387947 -0.02376565895974636
0.0025953673757612705 -0.028640449047088623 -0.0291613657027483
0.0026245922781527042 -0.03211626410484314 -0.026566272601485252
0.002594249788671732 -0.028507456183433533 -0.019141320139169693
0.002547957468777895 -0.02300094999372959 -0.026490869000554085
0.0026274104602634907 -0.03245219215750694 -0.02299877069890499
0.0026164897717535496 -0.03115297295153141 -0.020688584074378014
-0.0024105855263769627 -0.025230824947357178 -0.02608823962509632
-0.0021642502397298813 -0.024732382968068123 -0.025189189240336418
-0.002429418731480837 -0.024599924683570862 -0.024594174697995186
-0.002163633704185486 -0.02459246665239334 -0.02379290945827961
-0.0024185054935514927 -0.024869132786989212 -0.022888367995619774
-0.0024190028198063374 -0.025406697764992714 -0.022117407992482185
-0.0021294858306646347 -0.026023419573903084 -0.021619321778416634
-0.002410604152828455 -0.027228228747844696 -0.021206123754382133
-0.002394490409642458 -0.028386186808347702 -0.021305641159415245
-0.0020997393876314163 -0.029236653819680214 -0.02169514261186123
-0.002373109105974436 -0.029914604499936104 -0.02231154404580593
-0.0023772590793669224 -0.03039209358394146 -0.02315770648419857
-0.002089977264404297 -0.030575158074498177 -0.024047506973147392
-0.0023741242475807667 -0.030489934608340263 -0.024928102269768715
-0.0020943935960531235 -0.03011954016983509 -0.02579622156918049
-0.002386507112532854 -0.02964002452790737 -0.026372166350483894
-0.002114333212375641 -0.0291167963296175 -0.026779750362038612
-0.002391038928180933 -0.02778169885277748 -0.027199720963835716
-0.0024110269732773304 -0.026836581528186798 -0.02711574174463749
-0.002424961421638727 -0.026237091049551964 -0.02208337001502514
-0.00240121828392148 -0.029060618951916695 -0.0262222271412611
-0.0024196752347052097 -0.02686554566025734 -0.021791929379105568
-0.0024059717543423176 -0.02849477529525757 -0.026523185893893242
-0.002409490291029215 -0.028077274560928345 -0.026647983118891716
-0.002413128037005663 -0.02764442190527916 -0.026698468253016472
-0.002418281976133585 -0.027031254023313522 -0.02664901129901409
-0.0024237134493887424 -0.026385385543107986 -0.026399606838822365
-0.002428628969937563 -0.02579335682094097 -0.025962894782423973
-0.00243151793256402 -0.02545638009905815 -0.02553503029048443
-0.0024341256357729435 -0.025146599858999252 -0.024826424196362495
-0.002434695605188608 -0.02507857233285904 -0.023958871141076088
-0.002432959619909525 -0.02528534084558487 -0.02316953055560589
-0.0024288990534842014 -0.025747032836079597 -0.022479591891169548
-0.0023972471244633198 -0.029533004388213158 -0.025750773027539253
-0.002394717652350664 -0.029833929613232613 -0.025278670713305473
-0.0023927618749439716 -0.030066607519984245 -0.024440167471766472
-0.002393337432295084 -0.029998531565070152 -0.02357265166938305
-0.002395935822278261 -0.029688788577914238 -0.02286400832235813
-0.002398709300905466 -0.02935176156461239 -0.022436177358031273
-0.0024046567268669605 -0.028651665896177292 -0.021938098594546318
-0.0024117068387567997 -0.02781321480870247 -0.02170546166598797
0.0031064199283719063 -0.029957709833979607 -0.024816667661070824
0.0031069880351424217 -0.030025137588381767 -0.024127492681145668
0.0031248601153492928 -0.03215140476822853 -0.02232632227241993
0.0030999528244137764 -0.02918766252696514 -0.026067616418004036
0.0031175026670098305 -0.03127576410770416 -0.027621949091553688
0.0031004464253783226 -0.029246827587485313 -0.028865261003375053
0.00308187585324049 -0.02703842520713806 -0.029233692213892937
0.003092496655881405 -0.02830081433057785 -0.026587137952446938
0.003074576146900654 -0.026177091524004936 -0.019368328154087067
0.0030747437849640846 -0.02618964947760105 -0.022087207064032555
0.0030440324917435646 -0.022536534816026688 -0.024238547310233116
0.0030488474294543266 -0.023095186799764633 -0.021690892055630684
0.00312845129519701 -0.032578177750110626 -0.024915141984820366
0.0031081819906830788 -0.030167115852236748 -0.019965514540672302
0.0030864188447594643 -0.027578536421060562 -0.021694445982575417
0.0030796295031905174 -0.02677043154835701 -0.021807609125971794
0.003091546706855297 -0.028188712894916534 -0.019217807799577713
0.0030850758776068687 -0.027418602257966995 -0.026705792173743248
0.0030637821182608604 -0.024885552003979683 -0.028433555737137794
0.003055625595152378 -0.023915613070130348 -0.027643850073218346
0.0030783647671341896 -0.0266205295920372 -0.026535766199231148
0.0030681369826197624 -0.02540401928126812 -0.025522859767079353
0.0030722888186573982 -0.025898166000843048 -0.02610192634165287
0.00306492205709219 -0.025021297857165337 -0.024147404357790947
0.003066043369472027 -0.025154486298561096 -0.025007275864481926
0.0030467594042420387 -0.022861076518893242 -0.02592102251946926
0.0030665723606944084 -0.02521778643131256 -0.023216282948851585
0.003070262260735035 -0.025657080113887787 -0.022529801353812218
0.0031037693843245506 -0.029642822220921516 -0.025545882061123848
0.0031059207394719124 -0.02989821322262287 -0.023391762748360634
0.003103821538388729 -0.029648641124367714 -0.022876208648085594
0.003116336651146412 -0.031137043610215187 -0.0207552220672369
0.0030996697023510933 -0.02915452979505062 -0.022297115996479988
0.003093593753874302 -0.02843213826417923 -0.021863305941224098
-0.011433562263846397 -0.024778155609965324 -0.025106625631451607
-0.011455170810222626 -0.02268984541296959 -0.023639144375920296
-0.011204717680811882 -0.025275427848100662 -0.022351687774062157
-0.011415686458349228 -0.027386412024497986 -0.020758336409926414
-0.011374929919838905 -0.032291099429130554 -0.022236308082938194
-0.011179778724908829 -0.030213488265872 -0.022645926102995872
-0.006396808661520481 -0.03059622459113598 -0.0239670742303133
-0.010983766987919807 -0.0305634755641222 -0.02350595034658909
-0.011100875213742256 -0.03063741885125637 -0.024430030956864357
-0.011050213128328323 -0.024821970611810684 -0.02316802553832531
-0.011151177808642387 -0.024654196575284004 -0.023969048634171486
-0.011105410754680634 -0.025700628757476807 -0.02191518060863018
-0.011041827499866486 -0.02660655602812767 -0.021361084654927254
-0.01112511195242405 -0.027753200381994247 -0.021195577457547188
-0.011017808690667152 -0.028676532208919525 -0.021376466378569603
-0.011137669906020164 -0.029498739168047905 -0.021832210943102837
-0.0067160530015826225 -0.02997361682355404 -0.022347068414092064
-0.006720791570842266 -0.03043057583272457 -0.023169053718447685
-0.011147601529955864 -0.0304028932005167 -0.025419866666197777
-0.011371277272701263 -0.03266850486397743 -0.024356858804821968
-0.01117258332669735 -0.025794437155127525 -0.026567967608571053
-0.011411283165216446 -0.027910050004720688 -0.027640732005238533
-0.006784834899008274 -0.024627769365906715 -0.024600578472018242
-0.006398399360477924 -0.029882224276661873 -0.026152217760682106
-0.011072706431150436 -0.029590362682938576 -0.026483887806534767
-0.011024368926882744 -0.028683502227067947 -0.027037987485527992
-0.011126929894089699 -0.02753841131925583 -0.027203498408198357
-0.01103600300848484 -0.02666889876127243 -0.027045218273997307
-0.006773843429982662 -0.02543281763792038 -0.02627645619213581
-0.011052552610635757 -0.025082947686314583 -0.02576015703380108
-0.011449268087744713 -0.023391420021653175 -0.02145671658217907
-0.011431209743022919 -0.025547126308083534 -0.019577093422412872
-0.011377662420272827 -0.03190884739160538 -0.02692502923309803
-0.011400975286960602 -0.029192974790930748 -0.02903170697391033
-0.011427344754338264 -0.025998737663030624 -0.02897118218243122
-0.01140616461634636 -0.0285189226269722 -0.019286002963781357
-0.011454887688159943 -0.02272346429526806 -0.025188030675053596
-0.011446572840213776 -0.02371271513402462 -0.02740568108856678
-0.011387428268790245 -0.03074696473777294 -0.02019161358475685
-0.006450914777815342 -0.024945301935076714 -0.025598229840397835
-0.006441186182200909 -0.026245979592204094 -0.026882702484726906
-0.006714901886880398 -0.027089226990938187 -0.02716265805065632
-0.006415673531591892 -0.027841951698064804 -0.02718939818441868
-0.006688219495117664 -0.028625313192605972 -0.027027858421206474
-0.006696485914289951 -0.029336681589484215 -0.026661979034543037
-0.006687364540994167 -0.0302662905305624 -0.02560902200639248
-0.0064065223559737206 -0.03056802786886692 -0.02472067065536976
-0.006409638561308384 -0.029297294095158577 -0.02171596698462963
-0.006691197864711285 -0.028448350727558136 -0.021313676610589027
-0.006424701772630215 -0.02751193940639496 -0.02119625173509121
-0.006442698650062084 -0.026342645287513733 -0.021461518481373787
-0.006729445420205593 -0.02545781619846821 -0.02209644578397274
-0.006438915617763996 -0.025056172162294388 -0.022620992735028267
-0.006725559942424297 -0.024722781032323837 -0.023359859362244606
-0.006445399485528469 -0.024617109447717667 -0.023981725797057152
-0.00640167947858572 -0.02899615280330181 -0.026280315592885017
-0.006423809565603733 -0.02636367455124855 -0.022017383947968483
-0.006397291086614132 -0.02951800636947155 -0.025824716314673424
-0.00642805453389883 -0.025858595967292786 -0.02241191826760769
-0.006430436857044697 -0.025574782863259315 -0.02274257130920887
-0.006432308815419674 -0.025352604687213898 -0.02311748079955578
-0.0064340317621827126 -0.025148391723632812 -0.023697780445218086
-0.006434316746890545 -0.025113515555858612 -0.02438926510512829
-0.006433100439608097 -0.025271672755479813 -0.025107750669121742
-0.006430291570723057 -0.02565593458712101 -0.02578439749777317
-0.006425614468753338 -0.026149239391088486 -0.026231063529849052
-0.00642003957182169 -0.02681165188550949 -0.026575876399874687
-0.006413274444639683 -0.027616817504167557 -0.026708031073212624
-0.006406986154615879 -0.0284348763525486 -0.026566864922642708
-0.006418571807444096 -0.0269864983856678 -0.021777575835585594
-0.006413915194571018 -0.027540169656276703 -0.021694684401154518
-0.006406686268746853 -0.02840079367160797 -0.021823162212967873
-0.006400256417691708 -0.029165582731366158 -0.02223821170628071
-0.006395869888365269 -0.02968696318566799 -0.022809406742453575
-0.006393843330442905 -0.029940711334347725 -0.023291325196623802
-0.006392302922904491 -0.030110960826277733 -0.024133501574397087
-0.006393379531800747 -0.029982445761561394 -0.02499411441385746
-0.011909609660506248 -0.02807759866118431 -0.021727269515395164
-0.011904086917638779 -0.02873459830880165 -0.02194598875939846
-0.011882975697517395 -0.03124481998383999 -0.020736088976264
-0.011921850964426994 -0.026621636003255844 -0.02192196063697338
-0.011926671490073204 -0.0260483268648386 -0.01947435736656189
-0.011943137273192406 -0.024090014398097992 -0.02073000930249691
-0.011953510344028473 -0.022855203598737717 -0.022597702220082283
-0.011928871273994446 -0.025786330923438072 -0.02252086065709591
-0.011878745630383492 -0.031748171895742416 -0.027149295434355736
-0.011901531368494034 -0.029038390144705772 -0.026279857382178307
-0.011930540204048157 -0.025587262585759163 -0.028742225840687752
-0.011909428983926773 -0.0281418077647686 -0.02926807664334774
-0.011903723701834679 -0.028777791187167168 -0.019186921417713165
-0.011871635913848877 -0.03259437158703804 -0.023509109392762184
-0.01189376413822174 -0.029962098225951195 -0.025170760229229927
-0.011897396296262741 -0.029530039057135582 -0.02586298994719982
-0.011872146278619766 -0.03253377228975296 -0.02532615326344967
-0.011932801455259323 -0.02531910315155983 -0.023278573527932167
-0.011954734101891518 -0.022710489109158516 -0.024889959022402763
-0.011951981112360954 -0.023037385195493698 -0.02609727717936039
-0.011934218928217888 -0.025149814784526825 -0.024076825007796288
-0.011930599808692932 -0.025580335408449173 -0.02560017816722393
-0.011933352798223495 -0.02525232546031475 -0.024913212284445763
-0.011921348050236702 -0.02668115869164467 -0.026509271934628487
-0.011927494779229164 -0.025949832051992416 -0.026037858799099922
-0.011942347511649132 -0.024182284250855446 -0.027761409059166908
-0.011913519352674484 -0.027611669152975082 -0.026708493009209633
-0.011906752362847328 -0.028417464345693588 -0.02658638171851635
-0.011916281655430794 -0.02728337049484253 -0.021718351170420647
-0.011898869648575783 -0.02935507707297802 -0.022361183539032936
-0.011895760893821716 -0.02972453273832798 -0.022798890247941017
-0.011874383315443993 -0.03226746246218681 -0.022301802411675453
-0.011893004179000854 -0.03005257435142994 -0.023485833778977394
-0.01189214177429676 -0.030155038461089134 -0.02432224713265896
0.0006058518774807453 -0.08937186747789383 0.005455648060888052
0.0005815387703478336 -0.08826564252376556 0.0056908573023974895
-0.009394446387887001 -0.08834949880838394 0.005690907593816519
-0.009393790736794472 -0.08945593982934952 0.005455646198242903
-0.009416287764906883 -0.08678095787763596 0.004433850757777691
-0.009398994967341423 -0.08883587270975113 0.004331330768764019
-0.009395673871040344 -0.08923295885324478 0.004414715804159641
-0.009392740204930305 -0.08958305418491364 0.004327538423240185
-0.009390292689204216 -0.0898737907409668 0.004053664393723011
-0.009365025907754898 -0.09287596493959427 0.0038611730560660362
-0.009389197453856468 -0.09000343084335327 0.0036869673058390617
-0.009389778599143028 -0.08993198722600937 0.003309345804154873
-0.00939156673848629 -0.08972331136465073 0.003032310865819454
-0.009401796385645866 -0.08850615471601486 0.003261134959757328
-0.009402388706803322 -0.0884343683719635 0.0038199881091713905
-0.00939887948334217 -0.08885052055120468 0.0012469259090721607
-0.00939478725194931 -0.08934260904788971 0.0028402237221598625
-0.009399019181728363 -0.08883487433195114 0.002931133843958378
-0.009378772228956223 -0.09124207496643066 0.006377201061695814
-0.009392870590090752 -0.08956482261419296 0.0052879368886351585
-0.009217118844389915 -0.08667035400867462 0.004601611755788326
-0.009246254339814186 -0.08660893142223358 0.004329436458647251
0.0003826976753771305 -0.08658966422080994 0.0046016136184334755
0.0006067645736038685 -0.08948077261447906 0.0052879368886351585
0.00038223015144467354 -0.08653083443641663 0.0043249065056443214
0.0005833511240780354 -0.08669691532850266 0.004433850757777691
0.0006090258248150349 -0.08975019305944443 0.0041237277910113335
0.0005996790714561939 -0.08863850682973862 0.004257737658917904
0.0006208722479641438 -0.09115803241729736 0.006377201061695814
0.0006345906294882298 -0.09279190003871918 0.0038611730560660362
0.0006049913354218006 -0.08926884084939957 0.004416496492922306
0.0006079194135963917 -0.0896175429224968 0.002998185344040394
0.000609921757131815 -0.08985523134469986 0.0033270148560404778
0.0006104470230638981 -0.08991803228855133 0.003689180128276348
0.0005974010564386845 -0.08836567401885986 0.0038477936759591103
0.0005971533246338367 -0.08835244178771973 0.00349478330463171
0.0005982578732073307 -0.08846999704837799 0.0031966092064976692
0.000600751955062151 -0.08876646310091019 0.00124692777171731
0.0006006513722240925 -0.08875231444835663 0.002929086796939373
0.0006037936545908451 -0.08912615478038788 0.0028406111523509026
-0.009200206026434898 -0.08868109434843063 0.001137979794293642
0.0003996179439127445 -0.08860040456056595 0.0011379816569387913
-0.020544452592730522 -0.09248089790344238 0.034504882991313934
-0.020741155371069908 -0.09319761395454407 0.03390461951494217
-0.02132430300116539 -0.09220191836357117 0.03474435955286026
-0.0183554794639349 -0.09178324043750763 0.03507489711046219
-0.01820790395140648 -0.09478002041578293 0.037780724465847015
-0.01855490170419216 -0.09311283379793167 0.03396061435341835
-0.01891445182263851 -0.09211103618144989 0.03480364382266998
-0.02047812193632126 -0.09128298610448837 0.03550948575139046
-0.01954628713428974 -0.09114731103181839 0.03561658412218094
-0.020133553072810173 -0.09172147512435913 0.03513920307159424
-0.019822316244244576 -0.09346813708543777 0.03367156162858009
-0.019755758345127106 -0.09295396506786346 0.034102048724889755
-0.01934822089970112 -0.09432251006364822 0.038172751665115356
-0.01982971280813217 -0.09371501952409744 0.03868592530488968
-0.020518813282251358 -0.09457114338874817 0.03797244280576706
-0.02127884142100811 -0.09508178383111954 0.03754951059818268
-0.02029873989522457 -0.09597744047641754 0.03679051995277405
-0.01896686851978302 -0.09520860761404037 0.03742636367678642
-0.0187025498598814 -0.09578414261341095 0.03694182634353638
-0.020745696499943733 -0.09400226175785065 0.03845136612653732
-0.018727149814367294 -0.09398557990789413 0.03845115005970001
-0.02015039138495922 -0.09542351216077805 0.03725456818938255
-0.020670045167207718 -0.08691202849149704 0.04851587861776352
-0.021373827010393143 -0.08709696680307388 0.04836580902338028
-0.0202916469424963 -0.08807027339935303 0.04754122346639633
-0.018180327489972115 -0.08694839477539062 0.048467881977558136
-0.018989169970154762 -0.08704454451799393 0.04839252680540085
-0.018917491659522057 -0.0879148319363594 0.047661952674388885
-0.020918747410178185 -0.08616737276315689 0.04914215952157974
-0.02004062943160534 -0.08579143136739731 0.04945167899131775
-0.0195375457406044 -0.08627233654260635 0.049044594168663025
-0.0188693068921566 -0.08601011335849762 0.04925980418920517
-0.01971522532403469 -0.08762870728969574 0.04790753871202469
-0.019953826442360878 -0.08553750813007355 0.04444248974323273
-0.020671261474490166 -0.08463679254055023 0.04520333185791969
-0.019331350922584534 -0.08492117375135422 0.044955283403396606
-0.018882950767874718 -0.0853160172700882 0.04462074488401413
-0.019040988758206367 -0.08418603241443634 0.04556973651051521
-0.020977014675736427 -0.08515245467424393 0.044772669672966
-0.021334007382392883 -0.08432851731777191 0.04546678438782692
-0.018292726948857307 -0.08430901914834976 0.04546139016747475
-0.02087000012397766 -0.08350437879562378 0.04615483805537224
-0.019612973555922508 -0.0832156166434288 0.046388063579797745
-0.019880766049027443 -0.08372131735086441 0.045965734869241714
-0.01869376190006733 -0.08359313011169434 0.04606505110859871
-0.01354474201798439 -0.09242204576730728 0.034504882991313934
-0.01369021087884903 -0.09316735714673996 0.033880528062582016
-0.014352310448884964 -0.09221447259187698 0.03468441590666771
-0.011355623602867126 -0.09172441065311432 0.03507489711046219
-0.011208193376660347 -0.09472114592790604 0.037780724465847015
-0.011555114760994911 -0.09305400401353836 0.03396061062812805
-0.011914681643247604 -0.09205219894647598 0.03480364382266998
-0.01347832940518856 -0.09122414141893387 0.03550948202610016
-0.012546451762318611 -0.09108847379684448 0.03561658039689064
-0.013142302632331848 -0.09165970981121063 0.035141631960868835
-0.012822456657886505 -0.09340924769639969 0.033671557903289795
-0.012755967676639557 -0.09289510548114777 0.03410204499959946
-0.01352706179022789 -0.09454727172851562 0.03794288635253906
-0.014063380658626556 -0.09414372593164444 0.03828520327806473
-0.014026768505573273 -0.0954652801156044 0.037176381796598434
-0.012083560228347778 -0.0943550392985344 0.0380939319729805
-0.011702843010425568 -0.09572529792785645 0.03694182634353638
-0.012829858809709549 -0.09365618973970413 0.03868592530488968
-0.011727415025234222 -0.09392671287059784 0.038451142609119415
-0.013150658458471298 -0.09536468982696533 0.037254564464092255
-0.013125298544764519 -0.09595178812742233 0.03676152974367142
-0.012223584577441216 -0.09530491381883621 0.03729823976755142
-0.012499820441007614 -0.08631157130002975 0.04896195977926254
-0.01304084062576294 -0.08573257178068161 0.04945167154073715
-0.013537311926484108 -0.08656326681375504 0.0487581267952919
-0.014316940680146217 -0.08643098175525665 0.048874616622924805
-0.01370023749768734 -0.08792801946401596 0.047613926231861115
-0.011286424472928047 -0.08701706677675247 0.048361144959926605
-0.011959871277213097 -0.08716459572315216 0.0482424721121788
-0.01185196079313755 -0.08782590925693512 0.047686703503131866
-0.011618323624134064 -0.08608651906251907 0.04914461076259613
-0.01327320747077465 -0.08742387592792511 0.04803406447172165
-0.01364237628877163 -0.08417432010173798 0.04554175212979317
-0.014099230989813805 -0.08498015999794006 0.044868797063827515
-0.014302041381597519 -0.08393409848213196 0.04574784263968468
-0.011289061978459358 -0.08434353768825531 0.045383159071207047
-0.011815957725048065 -0.08522994816303253 0.04464307427406311
-0.011996094137430191 -0.08421248197555542 0.045498136430978775
-0.01298736222088337 -0.08312531560659409 0.046416934579610825
-0.012788405641913414 -0.08367541432380676 0.045954350382089615
-0.011768367141485214 -0.08346854150295258 0.04612058028578758
-0.013104230165481567 -0.08547540009021759 0.044446028769016266
-0.012862630188465118 -0.08502274751663208 0.04482407122850418
-0.013725658878684044 -0.0864492654800415 0.036017656326293945
-0.01477067731320858 -0.0875345915555954 0.03511442989110947
-0.014914914965629578 -0.08540192991495132 0.032335687428712845
-0.01678749918937683 -0.08814200758934021 0.034619271755218506
-0.017678270116448402 -0.08580842614173889 0.03201453760266304
-0.019012529402971268 -0.08746345341205597 0.03520386293530464
-0.019093284383416176 -0.08513437956571579 0.032590121030807495
-0.019671332091093063 -0.0845615416765213 0.03307478502392769
-0.019843557849526405 -0.08650751411914825 0.03601197153329849
-0.013584816828370094 -0.08380436897277832 0.03366716206073761
-0.013641074299812317 -0.08477536588907242 0.037421707063913345
-0.02007596753537655 -0.08533979207277298 0.03699350357055664
-0.020062414929270744 -0.08371860533952713 0.03378479182720184
-0.019068706780672073 -0.08372537046670914 0.03834078460931778
-0.019826609641313553 -0.08228529989719391 0.03498588129878044
-0.015238318592309952 -0.08113794028759003 0.03591637313365936
-0.01608477346599102 -0.08313895761966705 0.038812048733234406
-0.01482303999364376 -0.08358847349882126 0.03842569887638092
-0.014327768236398697 -0.08172657340765 0.035415805876255035
-0.01824297197163105 -0.08103132247924805 0.036029234528541565
-0.016612425446510315 -0.0808330848813057 0.03618133068084717
-0.013699660077691078 -0.08258765190839767 0.03468871861696243
-0.01734975352883339 -0.08713801950216293 0.035465314984321594
-0.01603882387280464 -0.08405369520187378 0.03804410248994827
-0.01870458573102951 -0.08632468432188034 0.03615710511803627
-0.018671022728085518 -0.08482959866523743 0.03741157054901123
